36.67138889999895 39.97611199999855 -14.8511915
36.68138889999895 39.97611199999855 -50.340992
38.50138889999859 39.97611199999855 1.2054157
38.511388899998586 39.97611199999855 -23.00075
38.521388899998584 39.97611199999855 -44.22721
38.53138889999858 39.97611199999855 -48.6554
38.54138889999858 39.97611199999855 15.7107115
38.55138889999858 39.97611199999855 -24.578354
38.561388899998576 39.97611199999855 -53.016834
38.571388899998574 39.97611199999855 -45.399242
38.58138889999857 39.97611199999855 -1.4296794
38.59138889999857 39.97611199999855 -24.01395
38.60138889999857 39.97611199999855 28.959675
38.63138889999856 39.97611199999855 -11.250159
38.761388899998536 39.97611199999855 -39.745052
38.771388899998534 39.97611199999855 -73.81413
39.321388899998425 39.97611199999855 14.83115
39.34138889999842 39.97611199999855 97.19211
39.35138889999842 39.97611199999855 46.4358
39.38138889999841 39.97611199999855 -44.205166
39.39138889999841 39.97611199999855 -6.3943405
39.40138889999841 39.97611199999855 -52.680317
39.41138889999841 39.97611199999855 -121.532616
39.421388899998405 39.97611199999855 -80.14743
39.90138889999831 39.97611199999855 -84.37096
39.91138889999831 39.97611199999855 35.02728
39.921388899998306 39.97611199999855 39.808098
39.9313888999983 39.97611199999855 -31.364828
39.9413888999983 39.97611199999855 -58.459812
39.9513888999983 39.97611199999855 -0.54351884
39.9613888999983 39.97611199999855 -24.099525
39.971388899998296 39.97611199999855 -73.838036
39.981388899998294 39.97611199999855 61.51945
40.20138889999825 39.97611199999855 -7.9005995
40.21138889999825 39.97611199999855 -50.92938
40.221388899998246 39.97611199999855 6.302403
40.231388899998244 39.97611199999855 -86.50471
40.24138889999824 39.97611199999855 -21.589867
40.34138889999822 39.97611199999855 -71.09301
40.35138889999822 39.97611199999855 -182.58116
40.371388899998216 39.97611199999855 -40.223736
40.381388899998214 39.97611199999855 -34.92616
40.39138889999821 39.97611199999855 -34.0183
40.40138889999821 39.97611199999855 85.66619
40.41138889999821 39.97611199999855 -37.92832
40.421388899998206 39.97611199999855 -13.71583
40.431388899998204 39.97611199999855 1.6869693
40.4413888999982 39.97611199999855 -36.501488
40.4513888999982 39.97611199999855 -47.266357
34.61138889999936 39.98611199999855 16.183372
34.62138889999936 39.98611199999855 -48.923866
34.63138889999936 39.98611199999855 -35.278454
34.641388899999356 39.98611199999855 -7.552351
34.651388899999354 39.98611199999855 -70.27835
34.66138889999935 39.98611199999855 25.769257
35.36138889999921 39.98611199999855 -103.46752
35.37138889999921 39.98611199999855 -95.70037
35.38138889999921 39.98611199999855 -45.841736
35.39138889999921 39.98611199999855 28.35185
35.401388899999205 39.98611199999855 36.89025
35.4113888999992 39.98611199999855 21.189003
35.4213888999992 39.98611199999855 -21.150364
35.4313888999992 39.98611199999855 -28.129345
35.4413888999992 39.98611199999855 -34.99712
35.46138889999919 39.98611199999855 -33.950184
35.47138889999919 39.98611199999855 -15.105057
35.48138889999919 39.98611199999855 -62.38887
36.19138889999905 39.98611199999855 4.342151
36.201388899999046 39.98611199999855 -20.06302
36.211388899999044 39.98611199999855 -14.507898
36.22138889999904 39.98611199999855 -21.567087
36.23138889999904 39.98611199999855 -14.881284
36.24138889999904 39.98611199999855 -6.883733
36.251388899999036 39.98611199999855 17.509966
36.261388899999034 39.98611199999855 23.612968
36.27138889999903 39.98611199999855 17.754341
36.28138889999903 39.98611199999855 15.005734
36.29138889999903 39.98611199999855 19.935413
36.301388899999026 39.98611199999855 -11.277023
36.511388899998984 39.98611199999855 -52.71915
36.52138889999898 39.98611199999855 26.75893
36.53138889999898 39.98611199999855 24.274645
36.54138889999898 39.98611199999855 -14.987832
36.551388899998976 39.98611199999855 1.596883
36.561388899998974 39.98611199999855 3.059288
36.57138889999897 39.98611199999855 -20.80355
36.58138889999897 39.98611199999855 -0.86143017
36.59138889999897 39.98611199999855 8.772328
36.601388899998966 39.98611199999855 59.914318
36.611388899998964 39.98611199999855 45.841274
36.62138889999896 39.98611199999855 -16.974476
38.261388899998636 39.98611199999855 -64.93602
38.271388899998634 39.98611199999855 -56.513428
38.611388899998566 39.98611199999855 -21.149626
38.621388899998564 39.98611199999855 -21.472857
38.63138889999856 39.98611199999855 -22.111744
38.64138889999856 39.98611199999855 -13.4078045
38.65138889999856 39.98611199999855 -20.93898
38.661388899998556 39.98611199999855 27.851946
38.671388899998554 39.98611199999855 -118.65593
38.68138889999855 39.98611199999855 -47.23377
38.69138889999855 39.98611199999855 -127.43141
38.70138889999855 39.98611199999855 -180.76842
38.711388899998546 39.98611199999855 -1.9215918
38.721388899998544 39.98611199999855 22.229218
38.73138889999854 39.98611199999855 3.1230805
38.74138889999854 39.98611199999855 -29.22601
38.75138889999854 39.98611199999855 -30.393116
38.761388899998536 39.98611199999855 5.4157705
38.771388899998534 39.98611199999855 -5.165542
39.39138889999841 39.98611199999855 -6.7066193
39.40138889999841 39.98611199999855 -28.864079
39.41138889999841 39.98611199999855 -52.716324
39.421388899998405 39.98611199999855 -44.03825
39.4313888999984 39.98611199999855 -7.9973435
39.4413888999984 39.98611199999855 -46.445637
39.4513888999984 39.98611199999855 -17.518265
39.4613888999984 39.98611199999855 8.280404
39.471388899998395 39.98611199999855 -16.49492
39.48138889999839 39.98611199999855 -55.62557
39.83138889999832 39.98611199999855 88.478004
39.84138889999832 39.98611199999855 -46.40953
39.85138889999832 39.98611199999855 -78.10184
39.86138889999832 39.98611199999855 -97.50541
39.88138889999831 39.98611199999855 -60.114746
39.9313888999983 39.98611199999855 -8.710079
39.9413888999983 39.98611199999855 -62.21258
40.231388899998244 39.98611199999855 -15.91821
40.24138889999824 39.98611199999855 -140.86076
40.25138889999824 39.98611199999855 -212.82074
40.26138889999824 39.98611199999855 -99.2823
40.271388899998236 39.98611199999855 -75.693115
40.281388899998234 39.98611199999855 -18.606714
40.29138889999823 39.98611199999855 2.5339932
40.30138889999823 39.98611199999855 94.19503
40.31138889999823 39.98611199999855 -11.732378
40.321388899998226 39.98611199999855 -1.5003145
40.331388899998224 39.98611199999855 15.614034
40.34138889999822 39.98611199999855 -4.913103
40.371388899998216 39.98611199999855 11.594564
40.381388899998214 39.98611199999855 55.88368
40.39138889999821 39.98611199999855 60.219166
34.651388899999354 39.99611199999855 0.8234946
34.66138889999935 39.99611199999855 -45.27989
34.67138889999935 39.99611199999855 -4.6979256
34.68138889999935 39.99611199999855 21.93146
34.691388899999346 39.99611199999855 -3.95623
34.701388899999344 39.99611199999855 -9.586883
34.71138889999934 39.99611199999855 17.214888
34.72138889999934 39.99611199999855 42.944298
35.4413888999992 39.99611199999855 7.986394
35.451388899999195 39.99611199999855 79.065315
35.46138889999919 39.99611199999855 11.831542
35.47138889999919 39.99611199999855 13.652164
35.48138889999919 39.99611199999855 -47.500797
35.49138889999919 39.99611199999855 -21.879599
35.501388899999185 39.99611199999855 25.440203
35.51138889999918 39.99611199999855 73.838684
36.28138889999903 39.99611199999855 -51.41751
36.29138889999903 39.99611199999855 -22.865105
36.301388899999026 39.99611199999855 -31.571733
36.311388899999024 39.99611199999855 -5.909426
36.32138889999902 39.99611199999855 -14.680683
36.33138889999902 39.99611199999855 -13.988436
36.34138889999902 39.99611199999855 -23.730677
36.351388899999016 39.99611199999855 7.184629
36.361388899999014 39.99611199999855 1.159827
36.37138889999901 39.99611199999855 -39.65832
36.38138889999901 39.99611199999855 -1.6546896
36.39138889999901 39.99611199999855 18.23654
36.401388899999006 39.99611199999855 -23.240692
36.421388899999 39.99611199999855 -26.019436
36.431388899999 39.99611199999855 -28.097593
36.441388899999 39.99611199999855 -41.49864
36.451388899998996 39.99611199999855 -62.29962
36.461388899998994 39.99611199999855 16.592089
36.47138889999899 39.99611199999855 -15.745914
36.48138889999899 39.99611199999855 -34.727192
36.49138889999899 39.99611199999855 -8.087485
36.501388899998986 39.99611199999855 3.9642751
36.511388899998984 39.99611199999855 -43.728046
36.52138889999898 39.99611199999855 -20.572823
36.53138889999898 39.99611199999855 -5.0963244
37.09138889999887 39.99611199999855 29.18046
37.10138889999887 39.99611199999855 -35.674675
37.111388899998865 39.99611199999855 0.34155655
37.12138889999886 39.99611199999855 -1.6483477
37.13138889999886 39.99611199999855 -34.069763
38.261388899998636 39.99611199999855 -60.430687
38.60138889999857 39.99611199999855 -53.39166
38.611388899998566 39.99611199999855 21.858118
38.621388899998564 39.99611199999855 90.22855
38.63138889999856 39.99611199999855 144.61589
38.64138889999856 39.99611199999855 -94.51236
38.65138889999856 39.99611199999855 -5.0834804
38.661388899998556 39.99611199999855 -52.19544
38.671388899998554 39.99611199999855 9.936345
38.68138889999855 39.99611199999855 22.190369
38.69138889999855 39.99611199999855 -14.765147
38.70138889999855 39.99611199999855 -16.481413
38.711388899998546 39.99611199999855 10.521066
38.721388899998544 39.99611199999855 -10.2826185
38.73138889999854 39.99611199999855 -22.717749
39.28138889999843 39.99611199999855 -59.879192
39.4613888999984 39.99611199999855 -30.421028
39.471388899998395 39.99611199999855 10.74309
39.48138889999839 39.99611199999855 -1.0527773
39.49138889999839 39.99611199999855 -44.156914
39.50138889999839 39.99611199999855 -19.859808
39.51138889999839 39.99611199999855 -73.126656
39.521388899998385 39.99611199999855 -32.088863
39.53138889999838 39.99611199999855 -51.276276
39.54138889999838 39.99611199999855 -41.200497
39.771388899998335 39.99611199999855 -127.73586
39.78138889999833 39.99611199999855 -59.10677
39.79138889999833 39.99611199999855 -48.264862
39.84138889999832 39.99611199999855 -33.521126
40.281388899998234 39.99611199999855 -7.81578
40.29138889999823 39.99611199999855 10.05698
40.30138889999823 39.99611199999855 0.43823764
40.31138889999823 39.99611199999855 -27.628656
40.321388899998226 39.99611199999855 -78.215065
40.331388899998224 39.99611199999855 53.57271
40.34138889999822 39.99611199999855 -24.16882
40.35138889999822 39.99611199999855 -19.013767
40.36138889999822 39.99611199999855 -14.566666
40.371388899998216 39.99611199999855 33.491325
40.381388899998214 39.99611199999855 -11.390168
40.39138889999821 39.99611199999855 -43.33449
40.40138889999821 39.99611199999855 -19.180632
40.41138889999821 39.99611199999855 -59.131573
40.431388899998204 39.99611199999855 20.362268
34.701388899999344 40.006111999998545 -5.2736826
34.71138889999934 40.006111999998545 -10.930236
34.73138889999934 40.006111999998545 -25.81434
34.741388899999336 40.006111999998545 -0.045501307
34.751388899999334 40.006111999998545 -9.92357
34.76138889999933 40.006111999998545 -7.913683
34.77138889999933 40.006111999998545 8.429087
34.78138889999933 40.006111999998545 29.659586
34.791388899999326 40.006111999998545 -28.010561
34.801388899999324 40.006111999998545 -23.551573
34.81138889999932 40.006111999998545 -65.80115
35.551388899999175 40.006111999998545 -1.5766866
35.56138889999917 40.006111999998545 35.461185
35.57138889999917 40.006111999998545 -14.569962
35.58138889999917 40.006111999998545 11.771649
35.59138889999917 40.006111999998545 36.589146
35.601388899999165 40.006111999998545 60.305656
36.32138889999902 40.006111999998545 -23.911873
36.33138889999902 40.006111999998545 -4.5095344
36.34138889999902 40.006111999998545 -0.45762444
36.351388899999016 40.006111999998545 8.141794
36.361388899999014 40.006111999998545 8.270638
36.37138889999901 40.006111999998545 -19.815817
36.38138889999901 40.006111999998545 -14.558963
36.39138889999901 40.006111999998545 -34.926388
36.401388899999006 40.006111999998545 -41.16655
36.411388899999004 40.006111999998545 -32.2102
36.421388899999 40.006111999998545 -31.878662
36.431388899999 40.006111999998545 -30.03026
36.441388899999 40.006111999998545 6.42887
36.451388899998996 40.006111999998545 -16.905708
36.461388899998994 40.006111999998545 -53.358532
36.47138889999899 40.006111999998545 -27.618206
37.14138889999886 40.006111999998545 -39.354397
37.15138889999886 40.006111999998545 -46.990463
37.161388899998855 40.006111999998545 -8.543334
37.17138889999885 40.006111999998545 0.19320138
37.18138889999885 40.006111999998545 -68.59097
37.19138889999885 40.006111999998545 -19.40763
38.14138889999866 40.006111999998545 41.023674
38.15138889999866 40.006111999998545 -3.4204164
38.55138889999858 40.006111999998545 52.129078
38.571388899998574 40.006111999998545 -18.790646
38.59138889999857 40.006111999998545 -4.7504697
38.60138889999857 40.006111999998545 16.119608
38.611388899998566 40.006111999998545 3.454314
38.621388899998564 40.006111999998545 -120.20413
38.63138889999856 40.006111999998545 22.029163
38.64138889999856 40.006111999998545 -47.991074
38.711388899998546 40.006111999998545 -42.837517
38.73138889999854 40.006111999998545 2.2388175
38.74138889999854 40.006111999998545 -62.160595
38.75138889999854 40.006111999998545 -90.83729
38.761388899998536 40.006111999998545 -67.7961
38.771388899998534 40.006111999998545 -30.531906
38.78138889999853 40.006111999998545 49.939335
38.79138889999853 40.006111999998545 -1.8394244
38.80138889999853 40.006111999998545 -21.37287
39.21138889999845 40.006111999998545 -25.668858
39.221388899998445 40.006111999998545 -74.39932
39.23138889999844 40.006111999998545 -9.957362
39.24138889999844 40.006111999998545 3.9544215
39.25138889999844 40.006111999998545 -50.807194
39.26138889999844 40.006111999998545 -82.38806
39.271388899998435 40.006111999998545 -121.0909
39.28138889999843 40.006111999998545 -44.686165
39.29138889999843 40.006111999998545 -23.601088
39.30138889999843 40.006111999998545 -21.1994
39.31138889999843 40.006111999998545 -26.54938
39.321388899998425 40.006111999998545 -41.3422
39.54138889999838 40.006111999998545 13.735715
39.55138889999838 40.006111999998545 -20.88924
39.56138889999838 40.006111999998545 -42.63861
39.60138889999837 40.006111999998545 -32.229214
39.61138889999837 40.006111999998545 -134.9417
39.64138889999836 40.006111999998545 -89.46229
39.65138889999836 40.006111999998545 117.83925
39.71138889999835 40.006111999998545 -63.357338
39.721388899998345 40.006111999998545 76.777596
39.73138889999834 40.006111999998545 110.108925
39.74138889999834 40.006111999998545 6.64418
40.35138889999822 40.006111999998545 2.1863809
40.36138889999822 40.006111999998545 -42.185085
40.381388899998214 40.006111999998545 -15.390191
40.39138889999821 40.006111999998545 -33.347
40.40138889999821 40.006111999998545 -14.972883
40.41138889999821 40.006111999998545 3.6942341
40.421388899998206 40.006111999998545 30.390535
40.431388899998204 40.006111999998545 27.045021
40.4413888999982 40.006111999998545 25.011269
40.4513888999982 40.006111999998545 12.536654
40.4613888999982 40.006111999998545 7.94418
40.471388899998196 40.006111999998545 31.289173
40.481388899998194 40.006111999998545 12.857056
34.76138889999933 40.01611199999854 -108.00681
34.77138889999933 40.01611199999854 -66.29555
34.78138889999933 40.01611199999854 -36.26608
34.791388899999326 40.01611199999854 -27.273254
34.801388899999324 40.01611199999854 -25.999489
34.81138889999932 40.01611199999854 -15.315976
34.82138889999932 40.01611199999854 -45.472755
34.83138889999932 40.01611199999854 -50.732765
34.841388899999316 40.01611199999854 -30.56509
34.851388899999314 40.01611199999854 3.2277625
34.88138889999931 40.01611199999854 -23.184336
34.891388899999306 40.01611199999854 72.99617
35.13138889999926 40.01611199999854 -45.64939
35.14138889999926 40.01611199999854 16.838991
35.151388899999255 40.01611199999854 34.15184
35.16138889999925 40.01611199999854 27.176956
35.17138889999925 40.01611199999854 6.4880567
35.18138889999925 40.01611199999854 -34.23906
35.19138889999925 40.01611199999854 94.94694
35.601388899999165 40.01611199999854 44.836346
35.61138889999916 40.01611199999854 33.638508
35.62138889999916 40.01611199999854 42.182312
35.63138889999916 40.01611199999854 -7.0557265
35.64138889999916 40.01611199999854 14.301794
35.651388899999155 40.01611199999854 5.975069
35.66138889999915 40.01611199999854 -7.2739363
35.67138889999915 40.01611199999854 -1.1142561
35.68138889999915 40.01611199999854 -0.7123338
35.69138889999915 40.01611199999854 -5.5957994
36.39138889999901 40.01611199999854 76.23486
36.401388899999006 40.01611199999854 -69.614235
36.421388899999 40.01611199999854 -8.519341
36.431388899999 40.01611199999854 22.510376
36.441388899999 40.01611199999854 -17.064999
36.451388899998996 40.01611199999854 -14.1086
36.461388899998994 40.01611199999854 -52.150917
36.47138889999899 40.01611199999854 26.976723
36.48138889999899 40.01611199999854 52.414566
36.49138889999899 40.01611199999854 33.375988
36.501388899998986 40.01611199999854 56.295303
36.53138889999898 40.01611199999854 1.7563838
36.54138889999898 40.01611199999854 6.6271214
36.551388899998976 40.01611199999854 -36.530075
36.561388899998974 40.01611199999854 -9.012986
36.57138889999897 40.01611199999854 -14.335048
37.23138889999884 40.01611199999854 -71.256165
37.24138889999884 40.01611199999854 -40.423836
37.25138889999884 40.01611199999854 13.630094
37.261388899998835 40.01611199999854 -29.997501
37.27138889999883 40.01611199999854 30.605095
37.28138889999883 40.01611199999854 -4.7146187
37.29138889999883 40.01611199999854 -106.727486
37.30138889999883 40.01611199999854 -156.10725
38.04138889999868 40.01611199999854 -101.136024
38.05138889999868 40.01611199999854 -110.10265
38.111388899998666 40.01611199999854 -78.488335
38.121388899998664 40.01611199999854 23.968801
38.4413888999986 40.01611199999854 -73.078285
38.4513888999986 40.01611199999854 -53.4351
38.461388899998596 40.01611199999854 -47.501976
38.471388899998594 40.01611199999854 21.589235
38.48138889999859 40.01611199999854 -49.53672
38.49138889999859 40.01611199999854 79.68944
38.50138889999859 40.01611199999854 17.944778
38.511388899998586 40.01611199999854 -44.324738
38.521388899998584 40.01611199999854 -103.09344
38.53138889999858 40.01611199999854 -59.658123
38.54138889999858 40.01611199999854 -38.168377
38.821388899998524 40.01611199999854 -8.222475
38.83138889999852 40.01611199999854 14.176138
38.84138889999852 40.01611199999854 58.031597
38.85138889999852 40.01611199999854 116.169464
38.861388899998516 40.01611199999854 7.155026
38.871388899998514 40.01611199999854 -49.29507
38.88138889999851 40.01611199999854 -40.574764
38.89138889999851 40.01611199999854 42.417183
39.15138889999846 40.01611199999854 -66.08569
39.16138889999846 40.01611199999854 -70.93053
39.171388899998455 40.01611199999854 -64.2805
39.18138889999845 40.01611199999854 -40.22588
39.19138889999845 40.01611199999854 -41.289154
39.20138889999845 40.01611199999854 -20.229744
39.21138889999845 40.01611199999854 -7.1250067
39.221388899998445 40.01611199999854 -17.278984
39.23138889999844 40.01611199999854 -54.43776
39.24138889999844 40.01611199999854 18.957958
39.25138889999844 40.01611199999854 -71.96613
39.26138889999844 40.01611199999854 61.178844
39.60138889999837 40.01611199999854 -3.2106497
39.61138889999837 40.01611199999854 6.370162
39.65138889999836 40.01611199999854 45.32425
39.66138889999836 40.01611199999854 -12.02628
39.671388899998355 40.01611199999854 12.41637
39.68138889999835 40.01611199999854 -32.592293
39.69138889999835 40.01611199999854 -24.191988
39.70138889999835 40.01611199999854 -19.887367
40.4513888999982 40.01611199999854 31.412153
40.4613888999982 40.01611199999854 -24.484377
40.471388899998196 40.01611199999854 -15.825433
40.481388899998194 40.01611199999854 -24.365427
40.49138889999819 40.01611199999854 -11.494626
40.521388899998186 40.01611199999854 -19.37653
40.531388899998184 40.01611199999854 -1.8710704
40.54138889999818 40.01611199999854 -9.714403
40.55138889999818 40.01611199999854 -63.841667
34.82138889999932 40.02611199999854 41.288895
34.83138889999932 40.02611199999854 60.024662
34.841388899999316 40.02611199999854 -4.815662
34.851388899999314 40.02611199999854 -44.23735
34.86138889999931 40.02611199999854 -12.169285
34.87138889999931 40.02611199999854 6.642265
34.88138889999931 40.02611199999854 12.302312
34.891388899999306 40.02611199999854 7.7786803
34.901388899999304 40.02611199999854 28.998386
34.9113888999993 40.02611199999854 20.708017
34.9213888999993 40.02611199999854 2.786823
34.9313888999993 40.02611199999854 32.265167
34.951388899999294 40.02611199999854 40.935455
35.06138889999927 40.02611199999854 1.1694363
35.07138889999927 40.02611199999854 -2.816459
35.08138889999927 40.02611199999854 -94.8938
35.09138889999927 40.02611199999854 -37.114796
35.101388899999264 40.02611199999854 -2.4155579
35.11138889999926 40.02611199999854 -25.820791
35.12138889999926 40.02611199999854 -59.456802
35.14138889999926 40.02611199999854 29.268475
35.151388899999255 40.02611199999854 -17.362837
35.16138889999925 40.02611199999854 17.677223
35.601388899999165 40.02611199999854 106.88322
35.61138889999916 40.02611199999854 -6.917969
35.651388899999155 40.02611199999854 61.25062
35.66138889999915 40.02611199999854 52.816372
35.67138889999915 40.02611199999854 29.805235
35.68138889999915 40.02611199999854 54.439625
35.69138889999915 40.02611199999854 43.110123
35.701388899999145 40.02611199999854 101.720825
35.71138889999914 40.02611199999854 95.89989
35.72138889999914 40.02611199999854 45.611443
35.73138889999914 40.02611199999854 25.779139
35.74138889999914 40.02611199999854 40.649715
35.751388899999135 40.02611199999854 70.46255
35.76138889999913 40.02611199999854 25.418175
36.48138889999899 40.02611199999854 -130.04625
36.49138889999899 40.02611199999854 -187.36078
36.501388899998986 40.02611199999854 -28.637987
36.511388899998984 40.02611199999854 -14.62234
36.52138889999898 40.02611199999854 -51.522087
36.53138889999898 40.02611199999854 26.72352
36.54138889999898 40.02611199999854 -29.170952
36.551388899998976 40.02611199999854 1.4587704
36.561388899998974 40.02611199999854 -24.635275
36.57138889999897 40.02611199999854 -12.64438
36.58138889999897 40.02611199999854 -1.118069
36.59138889999897 40.02611199999854 14.520093
36.601388899998966 40.02611199999854 33.429882
36.611388899998964 40.02611199999854 72.43645
36.62138889999896 40.02611199999854 -10.100967
36.63138889999896 40.02611199999854 -15.49051
36.651388899998956 40.02611199999854 50.22668
37.28138889999883 40.02611199999854 57.48165
37.29138889999883 40.02611199999854 125.21129
37.33138889999882 40.02611199999854 43.79541
37.34138889999882 40.02611199999854 34.769863
38.04138889999868 40.02611199999854 -18.928612
38.161388899998656 40.02611199999854 -16.938494
38.171388899998654 40.02611199999854 -31.11963
38.18138889999865 40.02611199999854 -60.739944
38.40138889999861 40.02611199999854 -27.906925
38.411388899998606 40.02611199999854 -17.696623
38.421388899998604 40.02611199999854 45.18966
38.4413888999986 40.02611199999854 -23.695135
38.4513888999986 40.02611199999854 -35.26442
38.461388899998596 40.02611199999854 -45.392765
38.471388899998594 40.02611199999854 -24.912077
38.48138889999859 40.02611199999854 2.9016278
38.861388899998516 40.02611199999854 -0.44545525
38.871388899998514 40.02611199999854 -30.621521
38.88138889999851 40.02611199999854 5.830397
38.89138889999851 40.02611199999854 -4.695858
38.90138889999851 40.02611199999854 43.420662
38.921388899998504 40.02611199999854 -44.847183
38.9313888999985 40.02611199999854 6.4147043
38.9413888999985 40.02611199999854 12.799029
38.9513888999985 40.02611199999854 -60.62723
38.9613888999985 40.02611199999854 -134.83011
38.971388899998495 40.02611199999854 -122.436264
39.071388899998475 40.02611199999854 -46.937397
39.08138889999847 40.02611199999854 -38.00049
39.09138889999847 40.02611199999854 -19.47942
39.10138889999847 40.02611199999854 -71.9906
39.11138889999847 40.02611199999854 -44.602966
39.121388899998465 40.02611199999854 -78.9988
39.13138889999846 40.02611199999854 125.520035
39.14138889999846 40.02611199999854 -81.4468
39.51138889999839 40.02611199999854 25.377743
39.55138889999838 40.02611199999854 -69.746284
39.56138889999838 40.02611199999854 -86.2775
39.571388899998375 40.02611199999854 -26.208834
39.58138889999837 40.02611199999854 9.9208765
39.59138889999837 40.02611199999854 -84.340416
39.60138889999837 40.02611199999854 -99.89276
39.671388899998355 40.02611199999854 -42.47371
39.69138889999835 40.02611199999854 28.365427
39.70138889999835 40.02611199999854 -12.849341
39.71138889999835 40.02611199999854 -2.0405018
39.721388899998345 40.02611199999854 -3.4602845
39.73138889999834 40.02611199999854 5.301044
39.74138889999834 40.02611199999854 8.196966
39.75138889999834 40.02611199999854 -67.72546
39.78138889999833 40.02611199999854 -85.682
39.79138889999833 40.02611199999854 24.267822
40.54138889999818 40.02611199999854 41.474808
40.55138889999818 40.02611199999854 4.393608
40.571388899998176 40.02611199999854 -3.2749324
40.581388899998174 40.02611199999854 -48.69856
40.65138889999816 40.02611199999854 38.1535
34.9113888999993 40.03611199999854 17.243402
34.9213888999993 40.03611199999854 -0.36063275
34.9313888999993 40.03611199999854 -20.225658
34.941388899999296 40.03611199999854 -1.8131496
34.951388899999294 40.03611199999854 83.04286
34.96138889999929 40.03611199999854 51.791237
34.97138889999929 40.03611199999854 -16.864122
34.98138889999929 40.03611199999854 -75.26263
34.991388899999286 40.03611199999854 -22.905512
35.001388899999284 40.03611199999854 15.1863
35.01138889999928 40.03611199999854 26.325237
35.02138889999928 40.03611199999854 -42.513718
35.03138889999928 40.03611199999854 17.717402
35.041388899999276 40.03611199999854 -7.6677976
35.051388899999274 40.03611199999854 -68.66223
35.06138889999927 40.03611199999854 -77.66649
35.74138889999914 40.03611199999854 55.262913
35.751388899999135 40.03611199999854 103.20187
35.76138889999913 40.03611199999854 96.44561
35.77138889999913 40.03611199999854 32.44159
35.78138889999913 40.03611199999854 35.518898
35.79138889999913 40.03611199999854 53.02974
35.801388899999125 40.03611199999854 26.7847
35.81138889999912 40.03611199999854 19.796995
36.57138889999897 40.03611199999854 -52.827248
36.58138889999897 40.03611199999854 -35.036785
36.59138889999897 40.03611199999854 -40.12776
36.601388899998966 40.03611199999854 -58.50251
36.611388899998964 40.03611199999854 3.8495293
36.62138889999896 40.03611199999854 6.73057
36.63138889999896 40.03611199999854 -42.980915
36.64138889999896 40.03611199999854 -29.735334
36.651388899998956 40.03611199999854 6.092487
36.661388899998954 40.03611199999854 -19.902216
36.67138889999895 40.03611199999854 -51.781555
36.69138889999895 40.03611199999854 -13.532928
36.701388899998946 40.03611199999854 18.477324
37.37138889999881 40.03611199999854 -82.73119
37.38138889999881 40.03611199999854 -39.0028
37.39138889999881 40.03611199999854 -17.048347
37.861388899998715 40.03611199999854 -21.134855
37.87138889999871 40.03611199999854 -13.207151
37.88138889999871 40.03611199999854 -12.283751
37.89138889999871 40.03611199999854 1.3680626
37.90138889999871 40.03611199999854 -43.84676
37.911388899998705 40.03611199999854 -72.90261
37.9213888999987 40.03611199999854 -116.69784
37.9313888999987 40.03611199999854 -110.10841
37.961388899998695 40.03611199999854 -24.79694
37.97138889999869 40.03611199999854 -30.170816
38.18138889999865 40.03611199999854 -53.188087
38.19138889999865 40.03611199999854 -28.620285
38.20138889999865 40.03611199999854 -2.5835743
38.321388899998624 40.03611199999854 -105.63342
38.33138889999862 40.03611199999854 8.414376
38.34138889999862 40.03611199999854 -5.143659
38.35138889999862 40.03611199999854 -25.463158
38.361388899998616 40.03611199999854 4.735728
38.371388899998614 40.03611199999854 -13.184823
38.38138889999861 40.03611199999854 11.013301
38.39138889999861 40.03611199999854 33.881348
38.40138889999861 40.03611199999854 -122.71825
38.4313888999986 40.03611199999854 -66.388084
38.9413888999985 40.03611199999854 3.9662077
38.9513888999985 40.03611199999854 33.838043
38.9613888999985 40.03611199999854 -22.520603
38.971388899998495 40.03611199999854 14.335135
38.98138889999849 40.03611199999854 14.998482
38.99138889999849 40.03611199999854 -0.40018022
39.00138889999849 40.03611199999854 -20.03301
39.01138889999849 40.03611199999854 -38.428116
39.021388899998485 40.03611199999854 -57.417652
39.03138889999848 40.03611199999854 -37.758812
39.04138889999848 40.03611199999854 -42.105576
39.05138889999848 40.03611199999854 -82.76466
39.06138889999848 40.03611199999854 -38.915035
39.4513888999984 40.03611199999854 -77.99248
39.4613888999984 40.03611199999854 -40.19159
39.471388899998395 40.03611199999854 -45.092144
39.48138889999839 40.03611199999854 -11.264762
39.49138889999839 40.03611199999854 -13.505947
39.50138889999839 40.03611199999854 -17.208632
39.51138889999839 40.03611199999854 -40.86255
39.521388899998385 40.03611199999854 -20.87594
39.53138889999838 40.03611199999854 -18.734228
39.54138889999838 40.03611199999854 -61.354527
39.571388899998375 40.03611199999854 -30.984385
39.76138889999834 40.03611199999854 19.216284
39.771388899998335 40.03611199999854 11.601429
39.80138889999833 40.03611199999854 -52.881973
39.81138889999833 40.03611199999854 -76.78704
39.821388899998325 40.03611199999854 -51.84947
39.83138889999832 40.03611199999854 -27.221224
40.631388899998164 40.03611199999854 12.977937
40.64138889999816 40.03611199999854 93.278305
40.65138889999816 40.03611199999854 11.975248
40.66138889999816 40.03611199999854 90.67141
40.671388899998156 40.03611199999854 -25.34813
40.681388899998154 40.03611199999854 -82.31621
40.69138889999815 40.03611199999854 -140.4206
34.301388899999424 40.04611199999854 11.494196
34.31138889999942 40.04611199999854 29.3529
34.32138889999942 40.04611199999854 -13.4627905
34.33138889999942 40.04611199999854 -6.8973346
34.341388899999416 40.04611199999854 44.67096
34.901388899999304 40.04611199999854 103.162
34.9313888999993 40.04611199999854 102.16065
34.941388899999296 40.04611199999854 19.930956
34.951388899999294 40.04611199999854 27.759691
34.96138889999929 40.04611199999854 44.375874
34.97138889999929 40.04611199999854 45.622593
34.98138889999929 40.04611199999854 -19.308472
34.991388899999286 40.04611199999854 -6.5376277
35.001388899999284 40.04611199999854 -5.057045
35.01138889999928 40.04611199999854 65.11605
35.02138889999928 40.04611199999854 14.727125
35.81138889999912 40.04611199999854 -47.9688
35.82138889999912 40.04611199999854 2.2168329
35.83138889999912 40.04611199999854 1.3839567
35.87138889999911 40.04611199999854 -32.065666
35.88138889999911 40.04611199999854 -32.788635
35.901388899999105 40.04611199999854 -19.197586
35.9113888999991 40.04611199999854 -13.353755
35.9213888999991 40.04611199999854 -30.263865
35.9313888999991 40.04611199999854 -13.240927
36.601388899998966 40.04611199999854 86.86727
36.611388899998964 40.04611199999854 -11.962813
36.63138889999896 40.04611199999854 -130.06668
36.64138889999896 40.04611199999854 -87.38048
36.651388899998956 40.04611199999854 -48.510796
36.661388899998954 40.04611199999854 7.0045424
36.67138889999895 40.04611199999854 -0.1809947
36.68138889999895 40.04611199999854 -18.594576
36.69138889999895 40.04611199999854 -0.04734208
36.701388899998946 40.04611199999854 -5.354085
36.711388899998944 40.04611199999854 -0.5583471
36.72138889999894 40.04611199999854 -23.927988
36.73138889999894 40.04611199999854 -8.284106
36.74138889999894 40.04611199999854 -14.632599
36.751388899998936 40.04611199999854 -16.435095
36.761388899998934 40.04611199999854 -3.7550473
36.77138889999893 40.04611199999854 -36.556824
37.4313888999988 40.04611199999854 49.295845
37.4413888999988 40.04611199999854 -1.5520049
37.461388899998795 40.04611199999854 -47.489777
37.47138889999879 40.04611199999854 -62.38804
37.48138889999879 40.04611199999854 -58.87288
37.49138889999879 40.04611199999854 13.399982
37.85138889999872 40.04611199999854 26.323803
37.861388899998715 40.04611199999854 -34.08733
37.87138889999871 40.04611199999854 -22.458773
37.88138889999871 40.04611199999854 -35.883602
37.89138889999871 40.04611199999854 -40.68077
37.90138889999871 40.04611199999854 -30.343182
37.911388899998705 40.04611199999854 -9.827229
37.9213888999987 40.04611199999854 -90.99748
38.321388899998624 40.04611199999854 -37.11737
38.33138889999862 40.04611199999854 -76.01382
38.34138889999862 40.04611199999854 -99.03037
38.35138889999862 40.04611199999854 -94.23504
38.91138889999851 40.04611199999854 -46.3935
38.921388899998504 40.04611199999854 -72.53262
38.9313888999985 40.04611199999854 29.820484
38.9513888999985 40.04611199999854 -56.918724
38.9613888999985 40.04611199999854 -52.93037
38.971388899998495 40.04611199999854 -41.84753
38.98138889999849 40.04611199999854 -74.00832
38.99138889999849 40.04611199999854 -94.97616
39.00138889999849 40.04611199999854 -14.294958
39.01138889999849 40.04611199999854 -36.20511
39.021388899998485 40.04611199999854 -63.891075
39.03138889999848 40.04611199999854 -37.666122
39.04138889999848 40.04611199999854 -25.28189
39.05138889999848 40.04611199999854 -19.332302
39.06138889999848 40.04611199999854 25.22613
39.071388899998475 40.04611199999854 -13.911639
39.08138889999847 40.04611199999854 -33.421093
39.39138889999841 40.04611199999854 -44.675613
39.40138889999841 40.04611199999854 -66.992966
39.41138889999841 40.04611199999854 25.617975
39.421388899998405 40.04611199999854 -22.024172
39.4313888999984 40.04611199999854 -25.67731
39.4413888999984 40.04611199999854 14.969988
39.4513888999984 40.04611199999854 6.4855947
39.4613888999984 40.04611199999854 -51.932858
39.471388899998395 40.04611199999854 -107.51479
39.88138889999831 40.04611199999854 -38.831234
39.89138889999831 40.04611199999854 10.192492
39.90138889999831 40.04611199999854 -17.561262
39.91138889999831 40.04611199999854 9.6890545
39.921388899998306 40.04611199999854 -15.882084
39.9313888999983 40.04611199999854 48.21178
39.9413888999983 40.04611199999854 -3.4385285
40.76138889999814 40.04611199999854 -48.623917
40.771388899998136 40.04611199999854 -34.467026
34.351388899999414 40.056111999998535 -20.962063
34.36138889999941 40.056111999998535 -22.167028
34.37138889999941 40.056111999998535 -10.896966
34.38138889999941 40.056111999998535 -41.710163
34.86138889999931 40.056111999998535 -39.7205
34.87138889999931 40.056111999998535 51.33598
34.88138889999931 40.056111999998535 35.426662
34.891388899999306 40.056111999998535 19.13512
34.901388899999304 40.056111999998535 -1.0010101
34.9113888999993 40.056111999998535 62.36748
34.9213888999993 40.056111999998535 58.231552
34.9313888999993 40.056111999998535 56.36797
34.941388899999296 40.056111999998535 44.906605
34.951388899999294 40.056111999998535 -3.809939
35.9113888999991 40.056111999998535 28.492346
35.9213888999991 40.056111999998535 17.76182
35.9313888999991 40.056111999998535 69.59534
35.9413888999991 40.056111999998535 131.59995
35.951388899999095 40.056111999998535 31.105415
35.96138889999909 40.056111999998535 9.550609
36.67138889999895 40.056111999998535 15.090207
36.69138889999895 40.056111999998535 -77.49618
36.701388899998946 40.056111999998535 4.115969
36.711388899998944 40.056111999998535 14.393946
36.72138889999894 40.056111999998535 -56.399773
36.73138889999894 40.056111999998535 -56.6174
36.74138889999894 40.056111999998535 11.054302
36.751388899998936 40.056111999998535 26.252552
36.761388899998934 40.056111999998535 -15.335572
36.77138889999893 40.056111999998535 -32.321
36.78138889999893 40.056111999998535 -88.52172
36.79138889999893 40.056111999998535 -17.466524
36.801388899998926 40.056111999998535 -126.70852
36.811388899998924 40.056111999998535 39.145657
36.82138889999892 40.056111999998535 -28.011002
36.83138889999892 40.056111999998535 -20.352043
36.84138889999892 40.056111999998535 -13.632604
36.851388899998916 40.056111999998535 43.366486
37.50138889999879 40.056111999998535 27.307535
37.511388899998785 40.056111999998535 32.87784
37.54138889999878 40.056111999998535 -59.56693
37.55138889999878 40.056111999998535 -48.242493
38.38138889999861 40.056111999998535 -38.50542
38.39138889999861 40.056111999998535 -34.22908
38.421388899998604 40.056111999998535 -110.964676
38.4313888999986 40.056111999998535 30.758032
38.84138889999852 40.056111999998535 49.100277
38.85138889999852 40.056111999998535 -37.8967
38.861388899998516 40.056111999998535 -82.742485
38.88138889999851 40.056111999998535 -35.11034
38.89138889999851 40.056111999998535 -27.16457
38.90138889999851 40.056111999998535 -69.72578
38.9313888999985 40.056111999998535 -60.745296
38.9413888999985 40.056111999998535 -13.527836
38.9513888999985 40.056111999998535 16.627745
39.10138889999847 40.056111999998535 -3.7743118
39.11138889999847 40.056111999998535 -44.686543
39.34138889999842 40.056111999998535 -14.480698
39.35138889999842 40.056111999998535 -21.555714
39.36138889999842 40.056111999998535 -9.570202
39.9413888999983 40.056111999998535 -85.54172
39.9513888999983 40.056111999998535 -72.108536
39.9613888999983 40.056111999998535 -44.919712
39.971388899998296 40.056111999998535 30.796118
39.99138889999829 40.056111999998535 -28.333189
40.00138889999829 40.056111999998535 -6.4180384
40.01138889999829 40.056111999998535 26.80321
40.021388899998286 40.056111999998535 -11.337907
40.80138889999813 40.056111999998535 31.592432
40.81138889999813 40.056111999998535 64.40149
40.82138889999813 40.056111999998535 25.622063
40.831388899998124 40.056111999998535 0.37747943
40.84138889999812 40.056111999998535 -25.429432
40.85138889999812 40.056111999998535 -38.208054
40.86138889999812 40.056111999998535 2.4864562
34.4313888999994 40.06611199999853 -50.236553
34.441388899999396 40.06611199999853 44.641953
34.451388899999394 40.06611199999853 -16.678167
34.76138889999933 40.06611199999853 40.782715
34.77138889999933 40.06611199999853 -47.66474
34.78138889999933 40.06611199999853 -6.2750845
34.791388899999326 40.06611199999853 10.081904
34.801388899999324 40.06611199999853 -7.7168546
34.81138889999932 40.06611199999853 -42.75343
34.82138889999932 40.06611199999853 91.88794
34.83138889999932 40.06611199999853 140.53839
34.841388899999316 40.06611199999853 144.8206
34.851388899999314 40.06611199999853 181.13374
34.86138889999931 40.06611199999853 107.87249
34.87138889999931 40.06611199999853 200.59839
34.88138889999931 40.06611199999853 102.35971
35.951388899999095 40.06611199999853 135.56181
35.96138889999909 40.06611199999853 52.914955
35.99138889999909 40.06611199999853 33.46743
36.001388899999085 40.06611199999853 26.958973
36.01138889999908 40.06611199999853 94.53379
36.02138889999908 40.06611199999853 42.394196
36.03138889999908 40.06611199999853 -4.2302036
36.04138889999908 40.06611199999853 42.552464
36.74138889999894 40.06611199999853 9.956861
36.751388899998936 40.06611199999853 -50.70174
36.761388899998934 40.06611199999853 -51.94528
36.77138889999893 40.06611199999853 -79.687294
36.78138889999893 40.06611199999853 -65.127785
36.79138889999893 40.06611199999853 0.7386736
36.801388899998926 40.06611199999853 3.7878683
36.811388899998924 40.06611199999853 -76.871185
36.82138889999892 40.06611199999853 20.926985
36.83138889999892 40.06611199999853 -31.795296
36.84138889999892 40.06611199999853 -66.44344
36.851388899998916 40.06611199999853 8.91547
36.861388899998914 40.06611199999853 8.750684
36.87138889999891 40.06611199999853 -6.1419697
36.88138889999891 40.06611199999853 -4.976549
36.89138889999891 40.06611199999853 13.048571
36.901388899998906 40.06611199999853 -3.1892276
36.911388899998904 40.06611199999853 14.32102
36.9313888999989 40.06611199999853 -31.776709
36.9413888999989 40.06611199999853 -39.518475
36.951388899998896 40.06611199999853 -40.7594
36.961388899998894 40.06611199999853 -94.07658
37.25138889999884 40.06611199999853 12.641186
37.261388899998835 40.06611199999853 -23.271282
37.65138889999876 40.06611199999853 -35.4183
37.661388899998755 40.06611199999853 -95.81923
37.68138889999875 40.06611199999853 -24.088785
37.69138889999875 40.06611199999853 64.04696
37.70138889999875 40.06611199999853 66.84204
37.711388899998745 40.06611199999853 69.42317
38.461388899998596 40.06611199999853 30.46432
38.471388899998594 40.06611199999853 -30.984848
38.48138889999859 40.06611199999853 -49.145527
38.49138889999859 40.06611199999853 35.035244
38.50138889999859 40.06611199999853 42.133556
38.74138889999854 40.06611199999853 150.65637
38.75138889999854 40.06611199999853 -10.121559
38.761388899998536 40.06611199999853 -17.372065
38.811388899998526 40.06611199999853 -6.1447134
38.821388899998524 40.06611199999853 -22.446495
38.85138889999852 40.06611199999853 -88.75937
38.861388899998516 40.06611199999853 -14.748081
40.00138889999829 40.06611199999853 -21.529583
40.01138889999829 40.06611199999853 8.758908
40.021388899998286 40.06611199999853 27.00111
40.031388899998284 40.06611199999853 32.519085
40.04138889999828 40.06611199999853 4.086092
40.05138889999828 40.06611199999853 32.17348
40.06138889999828 40.06611199999853 -32.57228
40.071388899998276 40.06611199999853 -78.59711
40.87138889999812 40.06611199999853 16.01961
40.881388899998115 40.06611199999853 -24.143307
34.61138889999936 40.07611199999853 -16.669762
34.62138889999936 40.07611199999853 -46.91307
34.701388899999344 40.07611199999853 -12.785598
34.71138889999934 40.07611199999853 -31.636217
34.72138889999934 40.07611199999853 -5.709989
34.73138889999934 40.07611199999853 23.267725
34.741388899999336 40.07611199999853 103.08511
34.751388899999334 40.07611199999853 69.87464
34.76138889999933 40.07611199999853 20.907398
34.77138889999933 40.07611199999853 11.717869
36.83138889999892 40.07611199999853 24.968296
36.84138889999892 40.07611199999853 -23.796333
36.851388899998916 40.07611199999853 3.2351205
36.861388899998914 40.07611199999853 -42.20267
36.87138889999891 40.07611199999853 -555.40717
36.88138889999891 40.07611199999853 -95.673645
36.89138889999891 40.07611199999853 -84.04333
36.901388899998906 40.07611199999853 -55.657024
36.911388899998904 40.07611199999853 13.971186
36.9213888999989 40.07611199999853 59.335945
36.9313888999989 40.07611199999853 4.0569444
36.9413888999989 40.07611199999853 -12.236062
36.951388899998896 40.07611199999853 -14.696115
36.961388899998894 40.07611199999853 -20.732655
37.111388899998865 40.07611199999853 -17.22065
37.12138889999886 40.07611199999853 -52.830177
37.13138889999886 40.07611199999853 -43.657314
37.14138889999886 40.07611199999853 6.3333
37.15138889999886 40.07611199999853 -11.816863
37.161388899998855 40.07611199999853 -23.410265
37.17138889999885 40.07611199999853 -37.99698
37.18138889999885 40.07611199999853 -63.173985
37.19138889999885 40.07611199999853 -68.80744
37.20138889999885 40.07611199999853 -42.544735
37.211388899998845 40.07611199999853 -53.234398
37.22138889999884 40.07611199999853 -11.1081915
37.58138889999877 40.07611199999853 40.824463
37.59138889999877 40.07611199999853 -30.347479
37.65138889999876 40.07611199999853 -16.042608
37.661388899998755 40.07611199999853 2.4925654
38.511388899998586 40.07611199999853 -89.893364
38.521388899998584 40.07611199999853 -69.87711
38.561388899998576 40.07611199999853 -46.856308
38.571388899998574 40.07611199999853 -87.03715
38.58138889999857 40.07611199999853 -74.03728
38.59138889999857 40.07611199999853 -51.163033
38.75138889999854 40.07611199999853 -36.66322
38.761388899998536 40.07611199999853 -37.385067
39.221388899998445 40.07611199999853 -15.271727
39.23138889999844 40.07611199999853 -47.987553
39.24138889999844 40.07611199999853 53.756428
39.26138889999844 40.07611199999853 -65.423164
39.271388899998435 40.07611199999853 -92.752815
39.29138889999843 40.07611199999853 66.420135
39.30138889999843 40.07611199999853 94.247765
40.06138889999828 40.07611199999853 -11.911127
40.09138889999827 40.07611199999853 -7.2456465
40.10138889999827 40.07611199999853 -53.316944
40.11138889999827 40.07611199999853 -73.275566
40.121388899998266 40.07611199999853 -83.61761
40.131388899998264 40.07611199999853 -128.75212
40.14138889999826 40.07611199999853 5.990544
34.58138889999937 40.08611199999853 -11.276385
34.591388899999366 40.08611199999853 -90.53822
34.601388899999364 40.08611199999853 -14.464518
34.61138889999936 40.08611199999853 -53.397617
34.62138889999936 40.08611199999853 20.605854
34.63138889999936 40.08611199999853 -9.493964
34.641388899999356 40.08611199999853 -24.08644
34.651388899999354 40.08611199999853 19.002558
34.66138889999935 40.08611199999853 -3.960183
34.691388899999346 40.08611199999853 43.246956
34.701388899999344 40.08611199999853 -5.3334637
34.71138889999934 40.08611199999853 -20.59854
34.72138889999934 40.08611199999853 -13.197122
34.73138889999934 40.08611199999853 62.12958
36.901388899998906 40.08611199999853 9.305759
36.911388899998904 40.08611199999853 -41.433704
36.9213888999989 40.08611199999853 -46.076466
36.9413888999989 40.08611199999853 -66.96601
36.951388899998896 40.08611199999853 -14.902508
36.961388899998894 40.08611199999853 26.368908
36.97138889999889 40.08611199999853 -67.4832
37.011388899998884 40.08611199999853 -16.615746
37.05138889999888 40.08611199999853 43.114178
37.061388899998875 40.08611199999853 40.921318
37.07138889999887 40.08611199999853 -20.02393
37.08138889999887 40.08611199999853 29.867332
37.09138889999887 40.08611199999853 -29.933983
37.10138889999887 40.08611199999853 -35.572376
37.111388899998865 40.08611199999853 -49.96969
37.12138889999886 40.08611199999853 -113.76434
37.13138889999886 40.08611199999853 -61.85897
37.14138889999886 40.08611199999853 -39.441914
37.15138889999886 40.08611199999853 -45.587925
37.161388899998855 40.08611199999853 -69.29356
37.17138889999885 40.08611199999853 -57.6101
37.18138889999885 40.08611199999853 -59.12419
37.50138889999879 40.08611199999853 3.3548768
37.511388899998785 40.08611199999853 -84.34963
37.52138889999878 40.08611199999853 -65.12298
37.53138889999878 40.08611199999853 10.78985
37.58138889999877 40.08611199999853 -15.453726
37.59138889999877 40.08611199999853 -94.80177
37.60138889999877 40.08611199999853 -47.35955
37.611388899998765 40.08611199999853 -42.1013
37.62138889999876 40.08611199999853 -76.66645
37.78138889999873 40.08611199999853 17.217028
37.79138889999873 40.08611199999853 -50.679443
38.14138889999866 40.08611199999853 -75.07547
38.15138889999866 40.08611199999853 -41.751328
38.161388899998656 40.08611199999853 25.733545
38.171388899998654 40.08611199999853 5.8065896
38.18138889999865 40.08611199999853 -49.12533
38.19138889999865 40.08611199999853 -8.342184
38.571388899998574 40.08611199999853 -14.515008
38.58138889999857 40.08611199999853 29.267138
38.59138889999857 40.08611199999853 -13.994514
38.60138889999857 40.08611199999853 -33.21376
38.611388899998566 40.08611199999853 -75.190704
38.621388899998564 40.08611199999853 -38.95682
38.63138889999856 40.08611199999853 -70.0513
38.64138889999856 40.08611199999853 -64.5963
38.65138889999856 40.08611199999853 -21.41791
38.661388899998556 40.08611199999853 38.85862
39.171388899998455 40.08611199999853 -24.408007
39.18138889999845 40.08611199999853 3.5955405
39.19138889999845 40.08611199999853 -44.55664
39.20138889999845 40.08611199999853 -7.9524837
39.21138889999845 40.08611199999853 -5.029122
39.221388899998445 40.08611199999853 -40.299862
39.23138889999844 40.08611199999853 -30.331572
34.51138889999938 40.09611199999853 43.4203
34.52138889999938 40.09611199999853 25.326387
34.53138889999938 40.09611199999853 -32.4143
34.551388899999374 40.09611199999853 76.51794
34.56138889999937 40.09611199999853 29.918503
34.57138889999937 40.09611199999853 17.48211
34.58138889999937 40.09611199999853 31.06479
34.591388899999366 40.09611199999853 -38.776806
